# .PCD v0.7 - Point Cloud Data file format
VERSION 0.7
FIELDS x y z rgb
SIZE 4 4 4 4
TYPE F F F F
COUNT 1 1 1 1
WIDTH 1487
HEIGHT 1
VIEWPOINT 0 0 0 1 0 0 0
POINTS 1487
DATA ascii
2.2623549 -8.1323252 3.3890951 0
4.7747068 -8.1234989 3.3999465 0
9.8284874 -8.1140451 3.3889775 0
2.2681537 3.9148488 3.3931682 0
2.3477631 3.9319572 3.3905067 0
2.265281 3.9463406 3.3911505 0
2.3426831 3.9598036 3.3870654 0
2.2608173 3.9753985 3.388015 0
2.342294 3.9959409 3.3868017 0
2.2556422 4.0035138 3.3843801 0
4.766305 4.0241418 3.397131 0
4.7911572 4.0393128 3.3824639 0
2.1763914 4.0584903 3.3826678 0
2.1971402 4.058567 3.3977563 0
2.262331 4.0531874 3.3890784 0
2.4780221 4.0495129 3.3960857 0
4.6542215 4.0443435 3.3904157 0
4.7542615 4.0500488 3.3930955 0
7.219605 4.0414987 3.3905087 0
2.149174 4.0713668 3.3910074 0
2.1733234 4.069181 3.3988693 0
2.2110813 4.0694075 3.3908641 0
2.240356 4.0677638 3.392411 0
2.45368 4.0605254 3.3986423 0
2.4622233 4.0608692 3.3859098 0
7.2584276 4.1480012 3.3990614 0
2.1395378 -8.3609343 3.4144814 0
4.6639023 -8.364131 3.4137475 0
7.1579971 -8.3510027 3.417341 0
9.6380835 -8.3263512 3.4162452 0
2.2085135 -8.268857 3.4060271 0
2.2473996 -8.2623129 3.416995 0
2.4020052 -8.2613859 3.405818 0
2.4523926 -8.2685385 3.4077835 0
4.6552219 -8.26583 3.4107442 0
2.1483746 -8.2517681 3.4107306 0
2.2531569 -8.2494078 3.4015098 0
4.702229 -8.2560358 3.4068205 0
4.9589887 -8.2445688 3.4008105 0
9.6249123 -8.2416487 3.4140365 0
2.1906819 -8.2353077 3.4116395 0
2.3269551 -8.2140951 3.415175 0
7.2838016 -8.1942244 3.4046514 0
2.3506033 -8.1510801 3.4129171 0
7.2675743 -8.1045465 3.4010766 0
7.2977672 3.9172032 3.407728 0
2.2666047 3.9276516 3.4110682 0
2.3605976 3.9331834 3.4197748 0
4.7818799 3.929939 3.4023499 0
4.8663278 3.9221008 3.4072919 0
2.260736 3.9540026 3.4068968 0
2.3447123 3.9428089 3.4088748 0
4.8621039 3.9542925 3.4058969 0
7.2938781 3.9568126 3.4068711 0
2.3367865 3.9658914 3.4034364 0
4.7921224 3.9739707 3.405782 0
2.2601421 3.989933 3.4064746 0
2.332849 3.9960043 3.4007344 0
2.3320329 4.0094686 3.4186995 0
4.7887564 4.0070133 3.4046543 0
7.2988858 4.0014482 3.4079745 0
2.2617488 4.0302329 3.4076166 0
7.2888136 4.0379848 3.4057555 0
2.1880486 4.0581403 3.4097023 0
2.2108953 4.0456223 3.4077592 0
2.4699295 4.0499997 3.4092293 0
4.6533399 4.0489192 3.4100928 0
4.6978869 4.0460577 3.4053369 0
4.7371955 4.0436387 3.4187691 0
7.1435184 4.0453696 3.4140697 0
2.1309319 4.0645785 3.4079874 0
2.2352951 4.0753374 3.4082859 0
2.2572691 4.0601172 3.4044328 0
2.4499288 4.0695038 3.4161742 0
2.1698177 4.0805936 3.4163229 0
5.0697799 -8.3477783 3.4365752 0
7.2178111 -8.3469486 3.430856 0
2.137403 -8.2613468 3.4304268 0
2.3955579 -8.2733393 3.4228857 0
2.4398267 -8.275259 3.431103 0
4.7000294 -8.2630758 3.4262478 0
4.7530103 -8.2632608 3.4241731 0
2.1274045 -8.2547827 3.4399559 0
2.1865764 -8.2562456 3.4288065 0
2.2348773 -8.2463827 3.4251988 0
2.3284705 -8.2515001 3.4355352 0
4.6380191 -8.2530451 3.4368761 0
4.7358222 -8.244256 3.4386325 0
4.9501653 -8.2480812 3.4349825 0
7.1895804 -8.2414761 3.4244773 0
7.2418289 -8.2287273 3.4362826 0
9.6950274 -8.2283716 3.4257944 0
2.2553177 -8.1876602 3.4313602 0
4.7631359 -8.1999273 3.4276333 0
9.7095585 -8.1678143 3.4282312 0
4.8426328 -8.1592369 3.4227076 0
2.3298521 -8.124958 3.4268241 0
4.7649236 -8.1231823 3.4282441 0
7.35533 -8.1308088 3.4204094 0
9.7167377 -8.1014366 3.429435 0
4.8534598 3.917357 3.4263356 0
2.3342626 3.9398406 3.4202473 0
4.7764997 3.9334235 3.4321997 0
2.2677181 3.9458113 3.4316142 0
2.3590026 3.9451494 3.4374197 0
4.8592377 3.9576471 3.4282715 0
2.2625568 3.9735317 3.4279006 0
4.7832599 3.9746103 3.4345098 0
2.3277876 3.9807813 3.4350557 0
2.3421216 3.9897344 3.4257023 0
2.2627785 4.011086 3.4280601 0
4.7899146 4.0160556 3.436784 0
4.7743111 4.0390201 3.431452 0
7.1963382 4.0333104 3.4260042 0
2.1351755 4.0501342 3.4287276 0
2.190346 4.0420566 3.4316146 0
2.2085142 4.0576301 3.4247584 0
2.2655258 4.0536366 3.4300368 0
4.6896677 4.0443149 3.4226627 0
4.7392502 4.0507369 3.4398186 0
2.1517522 4.0654664 3.4236982 0
2.1816146 4.0641103 3.4251106 0
2.2521811 4.0676966 3.4204352 0
2.2519848 4.0822458 3.4376392 0
2.4792171 4.0804548 3.4354949 0
4.7252159 4.1482105 3.4349625 0
4.7427697 4.1581273 3.4206738 0
4.6487513 -8.3549395 3.4406638 0
7.1450644 -8.3458624 3.4536326 0
2.1210961 -8.2664843 3.4543054 0
2.1806886 -8.2723646 3.4455335 0
2.2280755 -8.2727947 3.4494092 0
2.4267952 -8.2651539 3.4440477 0
2.1668255 -8.2523499 3.4528704 0
2.4112797 -8.2456913 3.4545515 0
2.4646521 -8.2449265 3.4476995 0
4.6842694 -8.253129 3.4531991 0
4.947052 -8.2547522 3.4576972 0
2.2553213 -8.2358932 3.4591935 0
4.7643552 -8.212863 3.4485052 0
7.2714653 -8.1901665 3.4429791 0
2.3310075 -8.177063 3.4568448 0
4.8401108 -8.1714125 3.4539366 0
4.7701325 -8.1428051 3.4505041 0
2.2648854 -8.1208515 3.4470205 0
7.286284 -8.1351652 3.4463272 0
7.3433914 -8.1273556 3.4592307 0
9.8295097 -8.1227283 3.4483461 0
4.8527398 -8.1136894 3.4582522 0
9.8244781 -8.0463915 3.4475026 0
4.79391 3.9174728 3.4587312 0
4.8002486 3.9174769 3.4403152 0
4.8445411 3.9180343 3.4554505 0
7.2877684 3.9165323 3.4466627 0
2.3466547 3.9398041 3.448308 0
2.2579019 3.9431272 3.4419422 0
2.2795641 3.9442997 3.4576948 0
2.2872694 3.9431832 3.4456813 0
4.7808313 3.9421921 3.454206 0
2.3382199 3.961911 3.4423833 0
4.7781506 3.9756103 3.4532785 0
7.2941141 3.9616909 3.4480965 0
2.2712557 4.0034246 3.451653 0
4.7786593 4.0119114 3.4534545 0
7.2918043 4.0023651 3.4475746 0
2.2684133 4.0358086 3.4495859 0
7.2662172 4.0302987 3.4417932 0
2.2248654 4.0583582 3.4470367 0
2.4770243 4.0561404 3.4559708 0
4.6901417 4.0534463 3.4552715 0
4.7837954 4.0523901 3.4552314 0
2.1361301 4.0677543 3.4466825 0
2.1700978 4.0695133 3.4464331 0
2.1901295 4.060482 3.4526575 0
2.2527518 4.061933 3.457303 0
2.2608244 4.0600471 3.4440675 0
2.4619684 4.0686264 3.4459054 0
2.4897668 4.0604119 3.4424546 0
4.6583476 4.0620184 3.4440506 0
7.2650571 4.156774 3.4415312 0
2.3507156 -8.3632841 3.4708529 0
4.6465864 -8.3656464 3.4656007 0
7.2243118 -8.3644381 3.4719734 0
9.646944 -8.3424339 3.4764998 0
2.1527703 -8.2669916 3.4790089 0
2.2521844 -8.2608309 3.4776788 0
4.6371551 -8.2659311 3.46222 0
2.1595957 -8.2569065 3.4647713 0
2.2081494 -8.2552252 3.4662552 0
2.406276 -8.2591944 3.4702327 0
2.4508433 -8.2493925 3.4709992 0
4.6722188 -8.2462864 3.4747889 0
4.7289271 -8.2500076 3.46896 0
7.1798253 -8.2401161 3.4616776 0
7.2400508 -8.2365246 3.4756157 0
9.5876064 -8.2180061 3.4661877 0
2.3266978 -8.1956549 3.4740498 0
4.8472085 -8.1942072 3.4771731 0
2.2545764 -8.1345472 3.4690337 0
4.8459935 -8.1131144 3.4767528 0
2.2722521 3.9294019 3.4716492 0
2.3513463 3.9271185 3.4713013 0
2.3398893 3.9439867 3.4631579 0
2.2607632 3.9641118 3.463197 0
2.3371344 3.9757376 3.4611998 0
2.260922 4.0013485 3.4633138 0
2.3445373 4.0252862 3.4664614 0
2.1391203 4.052794 3.468363 0
2.1976988 4.0523806 3.4764206 0
2.2668519 4.0493622 3.4676762 0
4.6426544 4.0554104 3.4641914 0
4.6695385 4.0426941 3.4738281 0
4.7253475 4.0475645 3.4676967 0
7.2027898 4.0417442 3.4669924 0
2.1573546 4.0694523 3.4630437 0
2.1751897 4.0645623 3.4767923 0
2.1813917 4.0603094 3.4639816 0
2.2129009 4.0643053 3.4698408 0
2.2434514 4.0630627 3.4711735 0
2.4552646 4.0743551 3.4633343 0
2.4718802 4.0644832 3.4745908 0
2.1406851 4.0943475 3.4695835 0
7.2258949 4.1393008 3.4723396 0
4.7252765 4.1572104 3.4676716 0
2.1373026 -8.371521 3.489012 0
4.6227136 -8.3422852 3.4910409 0
7.1301785 -8.341156 3.4989254 0
2.1420014 -8.2669907 3.4927251 0
2.2032139 -8.2694149 3.4806278 0
2.397671 -8.261754 3.4841421 0
2.4424858 -8.2686167 3.4953666 0
2.1910856 -8.2559814 3.4890461 0
2.2383962 -8.2484951 3.4890792 0
2.3874931 -8.2592278 3.496994 0
2.3289645 -8.2336998 3.4936187 0
4.713511 -8.2374859 3.4895904 0
4.7650628 -8.2317972 3.4817131 0
9.691164 -8.2334099 3.4841847 0
7.2719278 -8.2004614 3.4829934 0
9.7147713 -8.1804638 3.4882872 0
2.2502668 -8.1748524 3.4980366 0
4.771843 -8.1632929 3.4841061 0
2.3307002 -8.1257267 3.4948809 0
2.3420675 -8.1355467 3.4851081 0
7.2660255 -8.1222277 3.4816275 0
9.7298822 -8.1205988 3.4909132 0
2.2788105 3.9399736 3.4975131 0
2.3451416 3.9329329 3.4873199 0
4.7920427 3.9243922 3.491235 0
4.8596745 3.9354656 3.4814863 0
7.2899561 3.9223835 3.4871659 0
2.2581382 3.9404082 3.4821138 0
4.777657 3.9480708 3.4861579 0
2.349108 3.9758787 3.4901738 0
7.3017249 3.9705575 3.4898896 0
2.2669504 3.9925489 3.4886782 0
4.7791424 3.9850116 3.4866822 0
2.3454452 4.0063543 3.4875386 0
7.3008804 4.0121298 3.4896941 0
2.2697775 4.0347953 3.4907842 0
4.7891169 4.0293627 3.4902024 0
2.132164 4.0599232 3.4849513 0
2.4507816 4.0536814 3.4913704 0
4.7187281 4.0489597 3.4914606 0
4.7787871 4.0568786 3.4865568 0
7.2807913 4.0432019 3.4850447 0
2.1665227 4.0661631 3.4897349 0
2.1948054 4.0628357 3.4919136 0
2.229466 4.0645666 3.4914842 0
2.2649376 4.0638452 3.4871788 0
7.3176594 4.148931 3.4935772 0
4.7220969 4.161675 3.4926679 0
4.6746202 -8.3523569 3.5100291 0
7.1951852 -8.3433981 3.5144148 0
2.1242371 -8.2699718 3.5165322 0
2.2241082 -8.2604284 3.5145023 0
4.6703253 -8.2623749 3.5084579 0
2.129329 -8.2509365 3.5001552 0
2.1681919 -8.2468824 3.5134223 0
2.1813955 -8.2556 3.5013347 0
2.2313128 -8.2549772 3.5020616 0
2.3226354 -8.2445755 3.5087149 0
2.4292152 -8.2557631 3.5062993 0
2.4720905 -8.255373 3.5159156 0
4.7683725 -8.2519131 3.5092556 0
4.9840174 -8.2531147 3.5031116 0
7.1582122 -8.2278194 3.505605 0
4.8489709 -8.2148647 3.5113263 0
2.3280065 -8.1492033 3.5126665 0
4.7565556 -8.1513643 3.5050199 0
7.3547444 -8.1496353 3.5021603 0
2.2692504 -8.1284027 3.5123615 0
9.8187847 -8.1220713 3.5063634 0
4.7845078 -8.1198235 3.5150397 0
4.8384442 -8.1179447 3.5076113 0
9.8232498 -8.0535202 3.5071392 0
2.3475444 3.9154162 3.5071301 0
2.2669132 3.9376581 3.5105979 0
4.7889905 3.9287479 3.5166464 0
4.854054 3.9393911 3.5131204 0
2.3412962 3.9408715 3.5025864 0
4.7756801 3.9533353 3.5118752 0
2.2639332 3.9689198 3.5083492 0
2.2596157 3.9981666 3.5050914 0
2.3431051 3.9802501 3.5039017 0
4.7816792 3.9940956 3.5140257 0
2.3548596 4.0371747 3.5124495 0
4.7801433 4.0288424 3.5134749 0
2.1697652 4.0544195 3.5146656 0
2.2123721 4.0571585 3.5054553 0
2.2398851 4.0536141 3.5086007 0
2.2636869 4.0427103 3.5081635 0
2.4385681 4.0567446 3.5128686 0
2.4721498 4.0517988 3.5061154 0
4.6695495 4.0522337 3.5081739 0
4.7538228 4.0427394 3.5040402 0
7.1889052 4.0400949 3.5129185 0
2.1525295 4.0683155 3.50985 0
2.190541 4.0727663 3.5084674 0
2.2560525 4.0667567 3.5024025 0
2.1393447 4.0898824 3.5081525 0
4.6860499 4.1396413 3.5142102 0
4.6748605 -8.3673906 3.5352888 0
9.6394014 -8.3454676 3.5395036 0
2.1652112 -8.2684717 3.5288055 0
2.4116964 -8.2626343 3.5352058 0
4.7158399 -8.2609844 3.5251076 0
2.151238 -8.2537994 3.5383511 0
2.2108605 -8.2473221 3.5243154 0
2.2557573 -8.2593756 3.5388997 0
2.4208179 -8.2597704 3.5206807 0
2.4614964 -8.2520533 3.5289736 0
4.6544561 -8.2486982 3.5277147 0
4.9719648 -8.2440338 3.5203397 0
7.5086451 -8.2475901 3.5377786 0
2.2551427 -8.2250328 3.5202394 0
7.2285352 -8.2359447 3.522361 0
9.5953941 -8.2341108 3.5315623 0
7.2727761 -8.2139063 3.5329027 0
2.3305867 -8.194334 3.5360816 0
2.2550299 -8.1411171 3.5383389 0
2.2633226 -8.1392975 3.5264792 0
4.8382688 -8.1318398 3.5343106 0
7.2617149 -8.1297684 3.530267 0
2.2709374 3.9240277 3.5322878 0
2.2844825 3.9318511 3.5238557 0
2.3513558 3.9376543 3.529844 0
4.8785186 3.9235213 3.5217545 0
7.280827 3.9234359 3.5348208 0
2.2692146 3.9572766 3.5309737 0
2.2611213 3.9796994 3.5247998 0
2.3507009 3.9727242 3.5293622 0
7.2904119 3.9704418 3.5371046 0
2.3389893 3.9893482 3.5207462 0
7.2849607 4.0094767 3.5358059 0
2.2655954 4.0246339 3.528213 0
7.2325726 4.0225401 3.5233231 0
2.1916845 4.0571828 3.5319874 0
2.2237604 4.0578947 3.5343764 0
4.665483 4.0557837 3.5318079 0
4.7054586 4.0470915 3.5213101 0
4.7554574 4.0536623 3.5396001 0
2.1312642 4.0649147 3.532639 0
2.1699879 4.0710473 3.5326195 0
2.2112908 4.0730014 3.5246511 0
2.2351496 4.0608273 3.5230138 0
2.2666008 4.0639558 3.5289798 0
2.4653366 4.0639391 3.531671 0
7.2432642 4.1555686 3.5258708 0
4.7525043 4.1611509 3.5385199 0
2.1376302 -8.3621759 3.5483282 0
4.6658993 -8.3675861 3.5595713 0
7.1932197 -8.3525419 3.5571215 0
2.1462998 -8.2744951 3.5554187 0
2.1959651 -8.2658529 3.5533607 0
2.2063856 -8.272006 3.5436051 0
4.7140112 -8.2722187 3.5498214 0
4.7645807 -8.2647886 3.5429378 0
2.2455027 -8.2579699 3.5513339 0
2.4019825 -8.2595081 3.5467174 0
2.4382637 -8.2403975 3.5543211 0
2.4515395 -8.2511854 3.5425172 0
4.6512623 -8.2590618 3.5540514 0
4.9666858 -8.2530413 3.552871 0
7.1620135 -8.2434626 3.5494986 0
9.6787863 -8.2323208 3.5466108 0
9.7195539 -8.1938744 3.553968 0
4.7571235 -8.1715546 3.5402098 0
7.3419833 -8.1478825 3.5493927 0
2.3420687 -8.1218796 3.5446348 0
4.7757502 -8.1240664 3.5470235 0
9.727109 -8.1275921 3.5553312 0
4.8597856 3.9152873 3.5420234 0
7.3196945 3.9025638 3.5440819 0
2.2703946 3.9383965 3.5501831 0
2.3489444 3.9330182 3.5497565 0
4.7795181 3.9302199 3.5484021 0
4.771215 3.9589493 3.5453644 0
4.8629451 3.9535055 3.5431559 0
2.3388903 3.9702544 3.5422671 0
2.2739446 3.9809978 3.5529199 0
2.2737393 4.0175223 3.5527616 0
2.342386 4.0128193 3.5448711 0
4.7798705 4.001997 3.5485308 0
7.1774335 4.0391717 3.5532653 0
2.1837831 4.0587177 3.5436342 0
2.2076325 4.0567913 3.5536127 0
2.2433105 4.0556407 3.549624 0
2.2719002 4.0515804 3.5513437 0
2.4346974 4.0459509 3.551755 0
2.4690044 4.048985 3.5549307 0
2.4809175 4.0524907 3.5426152 0
4.6498814 4.0500789 3.5535307 0
4.6986818 4.0483289 3.5441313 0
4.7365527 4.0446072 3.5581889 0
4.7852454 4.0426497 3.5504971 0
2.1619184 4.0750098 3.5469813 0
2.2620375 4.071599 3.543741 0
2.4585516 4.0687871 3.5475011 0
7.3266335 4.1603441 3.5457351 0
2.2289321 -8.2711763 3.5796833 0
2.3937554 -8.2645512 3.5610366 0
2.1198626 -8.2439737 3.571347 0
2.1314399 -8.2511778 3.5611908 0
2.1802783 -8.2454576 3.5618176 0
2.232842 -8.2526903 3.5645125 0
2.3281024 -8.2563143 3.5758936 0
2.4333246 -8.2538385 3.569509 0
4.6410122 -8.2581854 3.5795217 0
4.6910477 -8.2479248 3.5690551 0
4.7443247 -8.2440414 3.5610738 0
4.9538884 -8.2461643 3.5757551 0
7.2274227 -8.2459536 3.5654764 0
2.3325028 -8.2392673 3.5600915 0
2.2517011 -8.2058792 3.5794158 0
4.7664628 -8.2019138 3.5692914 0
7.2621384 -8.2131233 3.5739565 0
2.2600541 -8.1951218 3.5626829 0
7.2790256 -8.1603079 3.5780816 0
2.3337383 -8.1467762 3.5705965 0
4.8326221 -8.1414957 3.5678279 0
9.8349333 -8.1447563 3.5747888 0
4.772645 -8.1329803 3.5715861 0
2.2699192 -8.1169071 3.5703769 0
2.273895 3.925642 3.5734777 0
2.2869861 3.9309628 3.562973 0
2.3462362 3.9288476 3.5704546 0
4.8604336 3.9250398 3.5780017 0
7.275507 3.9259381 3.5772221 0
2.2633157 3.9433751 3.5652266 0
2.3345201 3.9450483 3.5616136 0
4.7916374 3.9470751 3.5786359 0
4.7715864 3.9661803 3.5711932 0
4.8653951 3.9648218 3.5798168 0
2.2705557 3.9925382 3.5708733 0
2.3326762 3.9939134 3.5793824 0
2.3433056 3.9962761 3.5682433 0
4.7740788 4.0041366 3.5721183 0
7.2850189 4.0149994 3.5795457 0
2.2697566 4.0281148 3.5702503 0
2.1329136 4.0563927 3.5624084 0
2.1583111 4.0496697 3.5652425 0
2.191946 4.055028 3.5712459 0
2.2629611 4.0533786 3.56495 0
4.6933174 4.0515676 3.569911 0
4.790247 4.0539513 3.57812 0
7.2674642 4.0474811 3.5752575 0
2.1534376 4.0785642 3.5612566 0
2.1819119 4.0743389 3.5631375 0
2.2353272 4.0615239 3.5664763 0
2.4699001 4.0671835 3.5770833 0
4.7473192 4.1638789 3.5621853 0
4.6491461 -8.3550692 3.5826404 0
7.1806135 -8.3483133 3.5925329 0
9.612711 -8.331646 3.595042 0
2.1707625 -8.265995 3.5845304 0
2.4788539 -8.2651615 3.5835257 0
2.2137041 -8.253355 3.5888278 0
2.2535148 -8.2453232 3.5993111 0
2.4099548 -8.243989 3.5952039 0
2.4212275 -8.2460642 3.5812473 0
2.4681125 -8.2595005 3.5948069 0
4.6781492 -8.2425375 3.5937612 0
4.7402129 -8.2529087 3.5875959 0
7.1593628 -8.250699 3.5872281 0
7.4908171 -8.2405357 3.5848558 0
7.20433 -8.2298689 3.5984533 0
9.5907888 -8.2393408 3.5909483 0
4.7666392 -8.2181616 3.5975616 0
2.3310492 -8.1853132 3.59694 0
4.8354912 -8.160574 3.5949144 0
7.3537612 -8.1721287 3.5963378 0
2.2600183 -8.1221323 3.5859885 0
7.3495121 -8.0961599 3.5952997 0
4.8013692 3.9194882 3.5822484 0
2.2700291 3.9386699 3.5938997 0
2.3493848 3.9317703 3.592128 0
2.2679338 3.9712868 3.5922439 0
2.3399856 3.9699552 3.5849583 0
7.2878165 3.9744635 3.580229 0
2.2578633 3.9901795 3.5842855 0
2.1739209 4.0577483 3.5962925 0
2.1813371 4.0548282 3.5840752 0
2.2651577 4.0401626 3.59005 0
2.4781501 4.0438113 3.583019 0
4.6490107 4.0578332 3.5825887 0
4.6822529 4.0505133 3.5953348 0
4.7343287 4.0505667 3.585377 0
4.7668858 4.0420232 3.5976546 0
7.1730247 4.0417304 3.5906386 0
2.1334939 4.0760942 3.5827372 0
2.1545427 4.0686007 3.5902877 0
2.2197392 4.0683961 3.5937047 0
2.2315729 4.0709128 3.5817916 0
2.2473171 4.0617681 3.5943625 0
2.2601223 4.068646 3.5860708 0
2.459095 4.0642285 3.5882494 0
4.7264533 4.1536365 3.582407 0
7.29317 4.1470132 3.5815368 0
2.1410644 -8.3614264 3.6072991 0
4.6424193 -8.3591709 3.6068363 0
2.1528492 -8.2696819 3.6080499 0
2.2474022 -8.2616844 3.6160583 0
2.1915574 -8.2440605 3.6108654 0
2.2045012 -8.2586088 3.6030204 0
2.4029026 -8.2581491 3.6132147 0
2.4546971 -8.2478714 3.6058702 0
4.6326013 -8.2592154 3.6030149 0
4.730402 -8.2531404 3.6137969 0
4.9405327 -8.2433195 3.6073029 0
2.1265545 -8.2279177 3.6171372 0
7.2759356 -8.2390013 3.6163287 0
9.6698647 -8.2339106 3.6057148 0
2.3304052 -8.2190228 3.6175518 0
9.7227459 -8.2057104 3.6155896 0
7.2755742 -8.1666222 3.6162384 0
4.774549 -8.1520414 3.6005445 0
2.2552142 -8.13727 3.600668 0
2.3465359 -8.1279812 3.6088784 0
9.7137346 -8.125473 3.6139069 0
4.8535728 -8.1123867 3.6016262 0
4.7829237 3.9120204 3.6037028 0
2.2789166 3.933758 3.6195931 0
2.3531342 3.9354825 3.6139648 0
4.8534102 3.9262214 3.6015658 0
7.2892618 3.9382708 3.6196554 0
2.2698915 3.9541774 3.6123872 0
4.7885528 3.9522023 3.6058257 0
2.3477635 3.9623857 3.6098247 0
2.2642784 3.9807372 3.6079051 0
4.7882624 3.9877784 3.605716 0
2.2655523 4.0197749 3.6089225 0
2.3540158 4.0093412 3.6146445 0
4.7897873 4.0251212 3.6062911 0
7.2853303 4.0201836 3.6186738 0
2.1633313 4.0564909 3.6076694 0
2.2639458 4.0541449 3.6076398 0
4.6724772 4.0499005 3.6185348 0
4.7286744 4.054234 3.6131344 0
7.2505922 4.0431256 3.610002 0
2.1370156 4.0617456 3.6038814 0
2.2074995 4.0738201 3.6147296 0
2.2386992 4.0652485 3.6090257 0
2.4539177 4.0720959 3.6052969 0
2.4799104 4.061512 3.6033862 0
4.6558666 4.0717034 3.6120698 0
4.7125287 4.1501055 3.6069436 0
7.2820492 4.1458592 3.6178548 0
4.623271 -8.3427086 3.6287785 0
7.1621404 -8.337328 3.6259439 0
2.129885 -8.2744293 3.637531 0
2.1777854 -8.2643967 3.6382957 0
2.4482009 -8.2624426 3.6236937 0
4.681334 -8.2641554 3.6219819 0
2.1857152 -8.2597713 3.6263733 0
2.2345119 -8.2538414 3.6275659 0
2.3273792 -8.2496176 3.639221 0
2.3930628 -8.2569256 3.6254458 0
2.4339547 -8.2526226 3.6366465 0
4.7202282 -8.2513723 3.6371195 0
7.2138972 -8.2511816 3.6391389 0
4.7617164 -8.2269325 3.6258039 0
7.139185 -8.237812 3.6200914 0
4.8473444 -8.1964798 3.6279964 0
2.2525344 -8.1658783 3.6202054 0
4.7705655 -8.1623621 3.6291969 0
2.3375161 -8.132329 3.6230977 0
4.8511772 -8.1241436 3.629442 0
7.2998953 -8.1223965 3.6223099 0
9.8088503 -8.1322184 3.6316683 0
2.321939 -8.1187477 3.6349218 0
7.3419895 -8.097971 3.6328182 0
9.8210974 -8.0699806 3.6339552 0
4.7758236 3.9144249 3.6312129 0
4.8777871 3.9178505 3.6394768 0
7.3202214 3.9130688 3.6273839 0
2.2677426 3.9329059 3.6324949 0
2.3411362 3.9326274 3.625921 0
4.8599873 3.9391842 3.6327643 0
4.7812414 3.954463 3.6332903 0
2.2632885 3.9612427 3.6288955 0
2.3365331 3.9607661 3.6223311 0
4.782722 3.991538 3.6338582 0
7.291533 3.9814546 3.6202223 0
2.267051 4.0043821 3.6319358 0
2.3440254 4.0098748 3.6281745 0
4.7698245 4.0167713 3.6289127 0
2.2622712 4.0328569 3.6280735 0
7.1488466 4.0331821 3.6225548 0
7.2126708 4.0270476 3.6388264 0
2.1814139 4.0524979 3.6227791 0
2.2002554 4.049747 3.6385229 0
2.2475991 4.0535398 3.6272202 0
2.4576297 4.0592031 3.6307175 0
4.7051544 4.0418973 3.6312528 0
4.7660527 4.0498118 3.6274664 0
2.1349962 4.0787554 3.6243508 0
2.1522923 4.0631461 3.6279316 0
2.1793554 4.0656919 3.639621 0
2.2239084 4.0662065 3.6282325 0
2.4779637 4.0747581 3.622987 0
4.6853456 -8.3713293 3.6533327 0
5.0521164 -8.3488312 3.6481216 0
9.6188927 -8.345973 3.6526875 0
2.1664505 -8.2636204 3.6512284 0
2.2168586 -8.2601757 3.6523964 0
2.2273037 -8.2612286 3.6404023 0
2.1548567 -8.2529354 3.659075 0
2.4261689 -8.2588234 3.6506994 0
4.666039 -8.254981 3.6456957 0
4.76053 -8.2408447 3.6528051 0
4.9779553 -8.2406607 3.6477966 0
9.590003 -8.24753 3.6471231 0
7.26507 -8.2370625 3.6521852 0
9.6553688 -8.2304115 3.659713 0
2.2527425 -8.2059469 3.6424763 0
4.8365469 -8.1954145 3.6544964 0
2.3275452 -8.170887 3.6584203 0
4.7646227 -8.1680145 3.654398 0
7.2747674 -8.1760054 3.6546574 0
2.2637947 -8.1332226 3.6515155 0
4.8432817 -8.1279726 3.6570787 0
7.2795267 -8.1099386 3.6558709 0
2.3494582 3.9306145 3.6566687 0
2.3651249 3.9370322 3.6446307 0
4.7789154 3.9245605 3.6599607 0
7.2830353 3.9398649 3.6567652 0
2.2699275 3.9556456 3.6565316 0
2.3366096 3.9447565 3.6465151 0
4.767096 3.9504154 3.6553607 0
2.2614977 3.9771628 3.649637 0
2.3381886 3.9834983 3.647763 0
4.77634 3.9939473 3.6589582 0
7.2915535 3.9864826 3.658937 0
2.2600594 4.01125 3.6484604 0
2.3320723 4.0094833 3.6429296 0
4.7713695 4.0258698 3.6570237 0
2.1955073 4.0579934 3.653255 0
2.2248433 4.0572953 3.6590683 0
4.656579 4.0448556 3.6419539 0
4.7509046 4.0447745 3.6490586 0
2.1431589 4.0728416 3.648983 0
2.1663485 4.0621896 3.6511409 0
2.236964 4.0607862 3.6483843 0
2.2695544 4.0653172 3.6562264 0
2.4483943 4.0627842 3.6475425 0
2.4818861 4.0622339 3.6487865 0
7.2779655 4.1487551 3.6554728 0
4.7292242 4.1728907 3.6406207 0
2.1428854 -8.3664923 3.6703029 0
2.5142417 -8.372612 3.6728883 0
4.6626563 -8.3505011 3.6763728 0
7.1676593 -8.3551989 3.6680017 0
2.4602141 -8.2634726 3.6766694 0
4.7161322 -8.2620544 3.6655104 0
2.1444187 -8.2539558 3.6716409 0
2.1955888 -8.2575169 3.676127 0
2.2054963 -8.2523804 3.6616867 0
2.2488081 -8.2442961 3.668613 0
2.4105103 -8.2555962 3.6690836 0
2.4670522 -8.2537308 3.6616216 0
4.9777975 -8.2564182 3.6771922 0
7.1451597 -8.2560158 3.6621377 0
7.2039433 -8.2510996 3.6774578 0
4.6437449 -8.2349787 3.6687624 0
9.7167912 -8.209507 3.6715434 0
2.3510597 -8.1426849 3.6771955 0
9.7268343 -8.1451845 3.6734779 0
2.2523766 -8.1256542 3.6611197 0
4.7841969 -8.1224403 3.6620162 0
7.3686337 -8.137599 3.6785882 0
4.8625317 3.9138081 3.6644599 0
7.3119636 3.9135792 3.6641402 0
2.2706034 3.9371061 3.6761804 0
2.2801018 3.9372988 3.6648529 0
2.3433075 3.9359982 3.671006 0
4.8514833 3.940558 3.6602235 0
2.2689102 3.9702187 3.6747813 0
2.3426139 3.9707046 3.6704521 0
2.2646894 3.9992409 3.6712937 0
2.346983 4.0144672 3.6739404 0
7.2988272 4.0327063 3.6607914 0
2.1748416 4.0569348 3.6763167 0
2.2153158 4.0569019 3.6699755 0
2.2501113 4.0564051 3.6696894 0
2.4556229 4.0539694 3.6731672 0
4.6508112 4.0494041 3.6716061 0
4.7036228 4.0493264 3.6605625 0
4.7456341 4.0490317 3.6771803 0
7.1722169 4.051918 3.6691895 0
2.1534009 4.064477 3.6686172 0
2.1953492 4.078548 3.6759222 0
2.4732311 4.0669217 3.6662841 0
2.1451964 4.0970635 3.6723197 0
2.1247318 -8.2628222 3.6985521 0
2.1768095 -8.2613277 3.6999116 0
2.1888349 -8.2657051 3.6883891 0
2.396898 -8.2683849 3.6941583 0
2.452704 -8.2703905 3.6907203 0
2.1308489 -8.2473717 3.6836493 0
2.2366703 -8.2531281 3.6880012 0
4.6953306 -8.2450752 3.6895218 0
4.7529259 -8.2454872 3.6800647 0
2.3317246 -8.2241096 3.6841967 0
4.6319127 -8.2339897 3.6963124 0
7.2535253 -8.2352543 3.6903796 0
2.2501726 -8.1891899 3.6993985 0
4.764225 -8.185009 3.6845341 0
7.2817364 -8.1950645 3.697732 0
2.2552986 -8.1734896 3.6845167 0
9.8391895 -8.1661482 3.6951184 0
2.3381855 -8.1362352 3.6894176 0
4.83534 -8.1303921 3.6819212 0
7.2822285 -8.1240778 3.69786 0
4.7702932 -8.1163635 3.6869345 0
9.8389082 -8.0933132 3.6950643 0
4.8579793 3.9177318 3.6907325 0
7.2843671 3.9041572 3.6984174 0
2.3467762 3.9246957 3.6963594 0
2.3660364 3.9383585 3.6891537 0
4.7786555 3.9328401 3.6902423 0
2.2622943 3.9406788 3.6903622 0
2.3368449 3.9436288 3.6883342 0
4.8508191 3.9476647 3.6879456 0
4.7806568 3.970227 3.6910338 0
2.270859 3.9918425 3.6975191 0
2.3374159 3.9805532 3.6887958 0
7.2892089 3.9906676 3.6996794 0
4.7877197 4.0121274 3.6938276 0
2.2669692 4.0216165 3.6942687 0
2.3407373 4.0226398 3.6914797 0
7.2173796 4.0352044 3.6809595 0
2.1317565 4.0561209 3.6844516 0
2.1648626 4.0584788 3.6894844 0
2.2052116 4.0591459 3.6843495 0
2.2686849 4.0524387 3.685111 0
2.4490924 4.0589638 3.6879363 0
2.4753845 4.0497632 3.6882415 0
4.704134 4.0593491 3.6930645 0
4.7787552 4.0408282 3.6902819 0
2.1970074 4.060545 3.6954398 0
2.2446275 4.0728421 3.6947179 0
7.2482338 4.137475 3.6890006 0
4.7529645 4.1656146 3.6800799 0
7.1632972 -8.3609381 3.7045612 0
4.65517 -8.3573866 3.7058342 0
7.2170634 -8.3499098 3.7188566 0
2.2290971 -8.2674408 3.7047596 0
2.3348603 -8.2748127 3.7096391 0
2.4290426 -8.2679672 3.7195606 0
2.4867625 -8.2749557 3.7169752 0
4.9700017 -8.2608166 3.7056675 0
2.164403 -8.2599592 3.7133107 0
2.2145677 -8.2470665 3.7105899 0
2.4379869 -8.2569017 3.7014577 0
4.7494121 -8.2588873 3.7112856 0
2.1478648 -8.2358437 3.7192228 0
7.1808805 -8.2353458 3.7092361 0
9.6507969 -8.2351694 3.7127512 0
4.7565484 -8.1911564 3.7141576 0
2.3293872 -8.1446381 3.7051625 0
4.8337445 -8.1452999 3.7120333 0
2.2640891 -8.1281223 3.7111456 0
4.7670808 -8.1300888 3.7183959 0
7.3605032 -8.1397705 3.7182596 0
2.2685952 3.9240751 3.7052636 0
2.3397567 3.9317935 3.7136436 0
2.2549694 3.9444301 3.7034476 0
7.2961321 3.9523642 3.7014835 0
2.3407688 3.9692669 3.7144713 0
2.2691481 4.0056019 3.7154162 0
2.3415954 4.0068665 3.7151473 0
2.216347 4.0586815 3.7121248 0
2.2526925 4.0500584 3.7015257 0
4.6820016 4.0500841 3.716819 0
7.162056 4.0514231 3.7042313 0
7.216804 4.0401134 3.7187877 0
7.3099747 4.0444059 3.7050912 0
2.1309221 4.0738235 3.7040834 0
2.1539488 4.0604925 3.7040694 0
2.1862478 4.0608301 3.7081494 0
2.2317047 4.0701976 3.7069879 0
2.4806061 4.0741405 3.7122293 0
4.6560187 4.0638056 3.7061815 0
4.7514706 4.0636039 3.7121141 0
4.7314563 4.1565762 3.7040596 0
2.1384447 -8.3623161 3.7346165 0
9.6901808 -8.3424511 3.7205567 0
2.4181623 -8.2638407 3.7307734 0
4.6381044 -8.2616997 3.7254858 0
2.1383581 -8.2449093 3.7345383 0
2.2049313 -8.2521696 3.7244561 0
2.4683998 -8.249958 3.7251778 0
4.6911111 -8.2577162 3.7205484 0
4.7336392 -8.2514944 3.7379594 0
4.9498906 -8.2433558 3.7265046 0
7.2530389 -8.2453785 3.7284217 0
2.1885433 -8.2364225 3.7346506 0
2.2507298 -8.2333012 3.7232447 0
4.6692924 -8.23596 3.7384334 0
7.2902632 -8.2152977 3.7383187 0
9.7151775 -8.2167797 3.7255111 0
2.3275023 -8.1716919 3.7231956 0
9.7132587 -8.1423731 3.7251308 0
2.25577 -8.1398621 3.7275517 0
2.3476484 -8.1329374 3.7398419 0
7.2806873 -8.1328878 3.7357726 0
7.2855077 3.9098306 3.7370543 0
2.3561707 3.9237745 3.7270682 0
4.799355 3.923497 3.7313838 0
4.8552709 3.9240215 3.7205482 0
2.2686462 3.9526176 3.7385542 0
2.3381438 3.9453263 3.7319887 0
4.7774282 3.941133 3.7225599 0
7.2748814 3.9459612 3.7342291 0
2.2627568 3.9783866 3.7335217 0
4.8577013 3.9618213 3.7215097 0
2.3456061 3.9939127 3.7381544 0
4.7834368 3.981935 3.724978 0
7.292305 3.9975386 3.7388616 0
2.2627707 4.0148649 3.7335336 0
2.3366146 4.014873 3.7307248 0
4.7717724 4.008225 3.720284 0
7.273716 4.029562 3.7339191 0
2.1315703 4.0598373 3.7283976 0
2.2679062 4.0505362 3.7261086 0
4.6719122 4.0495439 3.739521 0
4.7255025 4.0512319 3.7346282 0
4.7816062 4.0528054 3.7242413 0
2.1503482 4.0729909 3.7214417 0
2.1710248 4.0646124 3.7295079 0
2.2079155 4.0634251 3.7270608 0
2.247122 4.0690632 3.7293959 0
2.4518385 4.0649276 3.7375753 0
2.4675791 4.0705605 3.7245378 0
4.6703873 4.0846052 3.7388878 0
4.7111483 4.148809 3.7287517 0
7.2575688 4.1481743 3.7296259 0
7.1944041 -8.3368883 3.758255 0
2.1848819 -8.2617636 3.7522993 0
2.2456808 -8.2689037 3.7487082 0
2.4514642 -8.2674685 3.7573631 0
2.128134 -8.2542324 3.7506089 0
2.3917313 -8.2515402 3.7561526 0
2.4025974 -8.2493172 3.741467 0
2.4574063 -8.2545052 3.7419751 0
4.9389777 -8.2429829 3.7536592 0
4.7691813 -8.2329006 3.7525105 0
7.1727934 -8.2391119 3.7523727 0
9.6371384 -8.2315865 3.7590425 0
2.3272746 -8.2083445 3.7446594 0
4.8458776 -8.1850662 3.7501059 0
9.8342142 -8.1706057 3.7491038 0
2.250746 -8.1548729 3.7418022 0
7.3563037 -8.1456728 3.7558775 0
2.3339555 -8.1225624 3.750242 0
4.7607956 -8.1391325 3.7490773 0
4.8489923 -8.111949 3.7513592 0
9.8341169 -8.0978832 3.7490845 0
2.2621017 3.9215462 3.7515991 0
2.2802734 3.9369845 3.7484899 0
2.3519766 3.9329829 3.7434185 0
4.8536267 3.9319742 3.7532241 0
2.268769 3.9689605 3.7573514 0
4.776547 3.9858778 3.7555258 0
2.3426723 4.0072012 3.7575259 0
4.7873807 4.0311236 3.7599611 0
2.1805553 4.054606 3.7484336 0
2.2259805 4.0591702 3.7428279 0
2.2426054 4.0521545 3.757338 0
2.2704325 4.0448966 3.7587864 0
2.4692044 4.0569096 3.7512987 0
4.7130857 4.0487728 3.756614 0
7.1471562 4.0494032 3.7453947 0
2.1527257 4.062376 3.7475367 0
2.1947634 4.0617003 3.740149 0
2.2586257 4.0608306 3.7486002 0
4.7793198 4.0607276 3.7566609 0
2.4962916 4.0808978 3.7469316 0
4.7167206 4.1621313 3.7581227 0
4.6840262 -8.363389 3.7758696 0
9.6848869 -8.3460779 3.7687488 0
2.1249666 -8.2728853 3.763684 0
2.1724789 -8.2604685 3.7654068 0
2.2275968 -8.2685347 3.7691734 0
4.7315102 -8.264492 3.7642627 0
2.2130871 -8.2537603 3.7775021 0
2.3296268 -8.2511787 3.7664669 0
2.4341216 -8.2476416 3.7669408 0
4.7650294 -8.2423983 3.778178 0
4.9869552 -8.2437201 3.7726374 0
7.2392716 -8.2427731 3.7704675 0
4.6588979 -8.2372169 3.7652695 0
9.7306643 -8.2379551 3.7780545 0
2.2539501 -8.2072477 3.7672396 0
4.7649031 -8.1626577 3.7781255 0
2.3306737 -8.1452351 3.7673507 0
9.7215958 -8.157362 3.7762113 0
2.2699194 -8.1341705 3.7697253 0
4.7922311 3.9272089 3.7619472 0
2.2665844 3.9489317 3.7782667 0
2.3456478 3.9403784 3.7600121 0
2.3673193 3.9411058 3.7781208 0
2.3463085 3.9772503 3.7605643 0
4.7942567 3.9646423 3.7627764 0
2.2656579 3.9833035 3.7774582 0
2.3391266 3.9817426 3.7744858 0
2.2731147 4.022893 3.772501 0
7.2019448 4.0381861 3.7603076 0
2.1473107 4.0463638 3.7762351 0
2.1704681 4.0582538 3.7635877 0
2.1836271 4.0454826 3.7754924 0
2.4588125 4.0559869 3.7632303 0
4.6523957 4.0422411 3.762527 0
4.754406 4.0477433 3.7737677 0
2.1427679 4.067605 3.7640221 0
2.2069139 4.0660524 3.771986 0
2.2295322 4.0695419 3.7708845 0
2.2682149 4.0611176 3.77969 0
4.6907272 4.1490622 3.7786963 0
7.2486229 4.1496286 3.7730129 0
2.1383462 -8.3672924 3.7977908 0
7.1453185 -8.3665562 3.7895887 0
2.1609521 -8.2654495 3.7806892 0
2.4731846 -8.2708654 3.7985065 0
2.1446946 -8.2549477 3.7927971 0
2.4130082 -8.2494249 3.7938483 0
2.42292 -8.2492075 3.7816613 0
4.7112513 -8.248724 3.787354 0
2.1971946 -8.2399797 3.7877667 0
2.2482543 -8.232069 3.7874346 0
4.6425729 -8.2287216 3.7903304 0
7.1608939 -8.2386208 3.7939255 0
7.2783747 -8.2149019 3.7811112 0
4.8402967 -8.1955385 3.7816253 0
2.3286035 -8.1798096 3.7897878 0
2.2511098 -8.1319208 3.7899587 0
4.7873015 -8.1222296 3.7874243 0
4.8459587 -8.126606 3.7839432 0
7.2746224 -8.1389942 3.7800899 0
9.7404699 -8.1006632 3.7800477 0
9.8370867 -8.1082792 3.7996881 0
2.3313141 3.9175019 3.792104 0
4.8612876 3.9119682 3.7902191 0
7.2756114 3.9107091 3.780359 0
2.271219 3.9213443 3.7823119 0
2.3475103 3.9245548 3.7815626 0
4.7912612 3.9343686 3.789068 0
2.258425 3.956615 3.7964253 0
2.335175 3.9595127 3.7954032 0
4.7773161 3.958637 3.7832787 0
4.8531089 3.9411242 3.7868705 0
2.3538105 3.9707112 3.7868807 0
7.2894201 3.960115 3.7841175 0
2.256134 3.9886348 3.7944 0
2.3332224 3.9920969 3.7937346 0
4.7765479 3.9939535 3.7829599 0
7.2933764 4.0044637 3.7851944 0
2.3477123 4.032702 3.781733 0
4.7802639 4.0332856 3.7845027 0
7.2804589 4.0396914 3.7816784 0
2.177562 4.0582113 3.7959137 0
4.6580729 4.0572157 3.7969754 0
4.7085834 4.0545478 3.7862284 0
2.2285795 4.0684881 3.7913454 0
2.2559063 4.0615592 3.7941988 0
2.4504015 4.0611486 3.7800961 0
2.4739044 4.0633168 3.799088 0
2.4911687 4.0724931 3.7890651 0
2.1426394 4.0826292 3.7800152 0
2.351918 -8.3729277 3.80971 0
2.1229446 -8.3567152 3.8087714 0
4.6663423 -8.3524866 3.8005204 0
7.1901069 -8.3452568 3.8020599 0
9.6662569 -8.339015 3.8177269 0
2.1831424 -8.2668324 3.8174443 0
2.2452128 -8.260046 3.8062081 0
4.7084579 -8.2642889 3.8185761 0
2.1274104 -8.2583227 3.8129969 0
2.1858263 -8.2460423 3.8034885 0
2.2302656 -8.2506056 3.8176856 0
2.4009733 -8.2459049 3.806242 0
2.4561324 -8.2533789 3.808825 0
4.7570357 -8.248188 3.8066673 0
4.9755468 -8.2443228 3.8022881 0
7.2276855 -8.2427654 3.8125234 0
2.3314633 -8.2232723 3.81144 0
9.627677 -8.2323809 3.8096738 0
2.2539515 -8.1809254 3.8140166 0
4.7657447 -8.1835623 3.8103409 0
7.3541694 -8.1562185 3.8017418 0
2.3378284 -8.1372795 3.8169315 0
2.3446953 -8.1280155 3.8035381 0
4.7771282 -8.1242914 3.8151431 0
4.8358755 -8.1261253 3.8075893 0
4.851522 3.9120188 3.814085 0
2.267612 3.9369061 3.8045464 0
4.7713628 3.9273696 3.812711 0
4.7865243 3.9757226 3.8191066 0
4.7798471 4.0062404 3.8162899 0
2.2639832 4.0390911 3.8013387 0
2.340343 4.0206189 3.8191009 0
7.1867771 4.0361371 3.8011327 0
2.439656 4.0429997 3.8158672 0
2.457576 4.0559297 3.8100059 0
4.6453667 4.0548935 3.8190904 0
4.6945767 4.0525169 3.8126249 0
4.7438936 4.0484219 3.8011234 0
4.7814193 4.0438781 3.8169529 0
2.1319451 4.0696149 3.8172877 0
2.141444 4.0634413 3.8006852 0
2.1663635 4.0627737 3.8129287 0
2.1998699 4.0623603 3.8163607 0
2.2136655 4.0636954 3.8026679 0
2.2480807 4.0667267 3.8087707 0
7.2423849 4.1526995 3.8166163 0
4.7585049 4.1715918 3.807287 0
4.6535749 -8.3476381 3.8226581 0
4.6521869 -8.2635832 3.8220549 0
2.1684618 -8.2529812 3.825927 0
2.2164648 -8.2482595 3.8315711 0
2.3283076 -8.2531366 3.8321388 0
2.3944252 -8.2579813 3.8211641 0
2.4359145 -8.2569542 3.8354387 0
2.4471431 -8.2571669 3.8220537 0
4.6859388 -8.2425394 3.836725 0
4.743103 -8.2444363 3.8334289 0
4.9670854 -8.2503347 3.8335328 0
7.1554337 -8.2461929 3.8385103 0
2.2533817 -8.2242613 3.8385985 0
9.7087374 -8.2282648 3.8265941 0
7.2660909 -8.2141762 3.8232174 0
9.723218 -8.1675291 3.8296168 0
2.2686462 -8.1248837 3.8271468 0
2.326081 -8.1368055 3.8301952 0
7.2624183 -8.1383581 3.8221948 0
2.2541511 -8.1177874 3.8392944 0
9.7286196 -8.0995407 3.8307443 0
2.2723761 3.9283051 3.8304796 0
4.8062305 3.9202864 3.8274193 0
7.3019705 3.931165 3.8332078 0
2.2695389 3.958998 3.8279445 0
2.3525681 3.9515297 3.829648 0
4.8684292 3.9615753 3.821104 0
7.2885909 3.9660082 3.8294823 0
2.2688303 3.9937558 3.8273115 0
2.3342025 3.9938507 3.8372836 0
2.3424349 3.9880288 3.8209057 0
7.2948642 4.0116968 3.831229 0
2.2689419 4.0303631 3.8274112 0
7.26124 4.0354819 3.8218665 0
2.1443219 4.0557699 3.8289988 0
4.676208 4.0453854 3.8324955 0
4.7322278 4.0484872 3.8287666 0
2.1870251 4.0640783 3.8321235 0
2.219759 4.0617719 3.8345907 0
2.2389197 4.072639 3.825515 0
2.2547314 4.0641613 3.8398194 0
2.2712941 4.0714135 3.8295128 0
2.4872682 4.0681844 3.8342905 0
7.3166671 4.1520853 3.8373001 0
4.7426906 4.1680446 3.833252 0
2.1437612 -8.3675919 3.8520284 0
2.5304487 -8.3532143 3.8447797 0
4.6440487 -8.3487225 3.8460727 0
7.1870112 -8.3557024 3.8475065 0
2.1575847 -8.2607021 3.8415484 0
2.206733 -8.2637691 3.8504357 0
2.4808056 -8.2627811 3.8498688 0
2.1420317 -8.2462883 3.8503728 0
2.4241376 -8.2515736 3.8462446 0
4.6354928 -8.2518921 3.842303 0
4.9550848 -8.2470751 3.8570786 0
4.7274871 -8.2350521 3.8547835 0
7.2117691 -8.2384539 3.8545597 0
7.4949236 -8.2398548 3.8400538 0
4.7650838 -8.2027311 3.8428524 0
7.3492842 -8.1638584 3.8463821 0
4.8426027 -8.1568289 3.842762 0
4.7675223 -8.1280737 3.8438978 0
7.3582973 -8.1026096 3.8488917 0
9.8249741 -8.1070366 3.8508573 0
2.3601663 3.9307849 3.8599446 0
4.796463 3.9220266 3.8563049 0
4.864325 3.9316936 3.8519254 0
2.2703111 3.9465234 3.8539143 0
2.3447471 3.9403064 3.8464868 0
4.776803 3.9416032 3.8478765 0
2.2676783 3.9777126 3.8515325 0
2.3405862 3.9688442 3.8428552 0
4.7737985 3.9749911 3.8465886 0
2.2608268 4.00176 3.8453341 0
4.7825651 4.0184646 3.8503468 0
7.1673226 4.0319853 3.8418975 0
2.2100086 4.0591097 3.8422713 0
2.263629 4.0432472 3.8478689 0
4.6600914 4.0402379 3.8531408 0
4.7212863 4.0478559 3.8520885 0
4.7796702 4.0524292 3.8491058 0
2.133327 4.06668 3.8520155 0
2.1669884 4.0612268 3.8504462 0
2.2032428 4.0672531 3.8584218 0
2.2437627 4.0684156 3.8565919 0
2.4779544 4.069706 3.8475127 0
4.6488104 4.066752 3.8481708 0
4.7184696 4.1557207 3.8508642 0
2.5211461 -8.3625708 3.8619986 0
4.6437283 -8.3687477 3.8767951 0
5.0710506 -8.3430424 3.8760962 0
9.6619091 -8.345542 3.8755631 0
2.2556338 -8.2813854 3.8674729 0
2.1266899 -8.2608166 3.873771 0
2.1918766 -8.2782173 3.873996 0
2.4593582 -8.2634811 3.8759747 0
2.4724939 -8.2728443 3.8660042 0
4.6889977 -8.265914 3.8658764 0
2.1323822 -8.2476473 3.8611095 0
2.2395325 -8.2531347 3.8695545 0
2.4128969 -8.2555075 3.8618164 0
7.2815228 -8.2454739 3.8744318 0
2.3265359 -8.2226276 3.8788743 0
2.3979182 -8.2377348 3.8687732 0
9.6204376 -8.2363338 3.8666544 0
4.7613783 -8.2140675 3.8695145 0
2.3304784 -8.1975584 3.8601198 0
4.8386574 -8.1704073 3.8743942 0
7.277081 -8.1685123 3.8731663 0
2.2492638 -8.1483049 3.8616343 0
2.3488896 -8.1547184 3.876395 0
4.7736807 -8.1561623 3.8748615 0
7.2866788 -8.1079359 3.8759007 0
4.7766628 3.9142778 3.8761575 0
2.3492389 3.934361 3.8767037 0
7.2855077 3.9289029 3.8755672 0
2.2876732 3.9410269 3.8696213 0
4.7656574 3.9409056 3.8713744 0
2.3435302 3.9601796 3.8716574 0
7.2756529 3.9656305 3.8727596 0
2.2617037 3.9907999 3.8730364 0
2.3423245 3.9938967 3.8705914 0
4.7791905 3.9880815 3.8772562 0
7.2833347 4.0120969 3.874948 0
2.3447549 4.034234 3.87274 0
4.6469526 4.0387883 3.878237 0
4.778862 4.0240316 3.8771136 0
7.2516003 4.0369067 3.8659072 0
2.1391695 4.0500631 3.8676701 0
2.1698442 4.051734 3.8769951 0
2.1814234 4.0510612 3.864105 0
2.2519903 4.0539351 3.872586 0
2.4471545 4.0545144 3.8656735 0
4.7057042 4.0432978 3.8732367 0
4.7622333 4.0463719 3.8698859 0
2.1579146 4.0664783 3.865576 0
2.2286363 4.0664387 3.8707852 0
2.4673123 4.0708017 3.8616745 0
4.7108965 4.1581025 3.8755245 0
7.2345047 4.1551623 3.8610368 0
7.2854581 4.1413321 3.8755529 0
4.6878934 -8.3657656 3.8965468 0
7.1658835 -8.3457737 3.8887563 0
2.4509099 -8.2774029 3.8942983 0
2.1747737 -8.2588253 3.8817139 0
2.2292144 -8.2568693 3.8826864 0
2.3910439 -8.2551222 3.8868945 0
2.4308345 -8.2431011 3.8971713 0
4.6690588 -8.2510748 3.8881235 0
4.7271256 -8.2523861 3.8826747 0
4.7662268 -8.2403688 3.8999019 0
4.9484339 -8.255641 3.8874052 0
7.1424727 -8.245717 3.8819325 0
2.1582575 -8.2345505 3.8861198 0
9.6975746 -8.2289371 3.8832247 0
2.2550039 -8.1997643 3.8838515 0
9.7156096 -8.1712017 3.887099 0
2.266809 -8.1342869 3.8947606 0
2.3278637 -8.1201735 3.8800607 0
4.8566809 -8.1226711 3.8821211 0
7.3480535 -8.1049461 3.8933856 0
9.7127142 -8.0962706 3.8864772 0
2.2707705 3.9351468 3.8813469 0
2.3393254 3.936398 3.8903022 0
4.8593597 3.9374256 3.8832695 0
4.8823962 3.9201241 3.8931456 0
2.2708888 3.950124 3.898531 0
2.2687929 3.9747467 3.8880506 0
2.3425446 3.9773479 3.8931787 0
2.2608416 4.0042529 3.8892462 0
2.3395379 4.0081244 3.890492 0
7.1552854 4.0322847 3.8856671 0
2.1336644 4.0569201 3.8805718 0
2.1593838 4.0511155 3.8872085 0
2.2684033 4.0465956 3.8876972 0
2.4543099 4.0507469 3.8972037 0
4.7487183 4.0436907 3.8921881 0
2.2084179 4.0639548 3.8896477 0
2.2469094 4.072978 3.8992181 0
2.4384229 4.0608034 3.8836281 0
2.4772625 4.0677304 3.891088 0
2.4893603 4.0704861 3.8800976 0
2.1411653 -8.3603878 3.9101498 0
2.1472406 -8.2704391 3.9161372 0
2.2194936 -8.2700386 3.9001279 0
2.3293886 -8.2784119 3.9073606 0
2.4242401 -8.261776 3.9158683 0
2.1549709 -8.2571812 3.9013484 0
2.1925893 -8.2532845 3.9193041 0
2.2039025 -8.2571373 3.9095962 0
2.475775 -8.2545433 3.9155455 0
4.658453 -8.2565985 3.9199586 0
4.7109141 -8.24438 3.9068425 0
7.210742 -8.2517519 3.9018319 0
2.2533908 -8.2355499 3.9052734 0
7.2634153 -8.239419 3.9171855 0
9.6053839 -8.2328215 3.9161053 0
2.3354297 -8.1917896 3.9128258 0
4.8373055 -8.1857786 3.9025159 0
4.7684903 -8.1650686 3.9008992 0
2.2531891 -8.1265125 3.9050851 0
4.8437691 -8.1185856 3.9053252 0
7.2708721 -8.1045599 3.9193592 0
9.8229856 -8.1153898 3.9101655 0
4.8535161 3.9053586 3.9095616 0
2.2701664 3.9234376 3.9093752 0
4.7802229 3.925741 3.9060683 0
2.3368287 3.9540265 3.9140916 0
2.3627565 3.9403775 3.9112389 0
4.8665695 3.9517899 3.9152353 0
4.7937598 3.9727926 3.9120324 0
2.3369913 3.9899466 3.9142387 0
4.7901683 4.0059624 3.91045 0
2.2657006 4.0332575 3.9167743 0
4.7850261 4.038012 3.9081845 0
7.2342148 4.0343032 3.908674 0
2.2571375 4.0545554 3.9087741 0
2.4482179 4.0571795 3.9121687 0
4.6530833 4.0560374 3.917515 0
4.6972151 4.0459633 3.9007156 0
4.7385268 4.0449696 3.9191914 0
2.1452086 4.0628009 3.9141347 0
2.1651473 4.0793033 3.9112713 0
2.1900878 4.061883 3.9066031 0
2.2287047 4.0641437 3.9088435 0
4.6968861 4.1559658 3.9005685 0
4.7391739 4.1560321 3.9194808 0
4.6711721 -8.3604984 3.9257467 0
7.1546221 -8.3464308 3.9290707 0
9.6390743 -8.33531 3.9235275 0
2.1328635 -8.2695684 3.9301784 0
2.169733 -8.2449322 3.9383039 0
2.1843765 -8.2575426 3.9300222 0
2.2336409 -8.2573938 3.9380622 0
2.2454426 -8.2555895 3.9246812 0
2.405484 -8.2434797 3.9264238 0
2.4658089 -8.2548618 3.927345 0
4.6973958 -8.2449541 3.9376805 0
4.7622828 -8.2538681 3.9298158 0
2.4473035 -8.2338076 3.9359977 0
4.9738669 -8.2396736 3.9323604 0
7.1863151 -8.2373905 3.9385018 0
9.68433 -8.227067 3.9334974 0
2.3267486 -8.2098217 3.9326553 0
4.8412638 -8.2103481 3.9329615 0
4.7683406 -8.1849604 3.9325249 0
7.2787523 -8.184742 3.9216561 0
2.2511582 -8.1677542 3.9300895 0
2.3329015 -8.1253567 3.9382951 0
2.3482196 -8.1304102 3.9243968 0
4.8377233 -8.1261415 3.9314017 0
4.7731776 -8.1148567 3.9346881 0
7.3096495 3.9067256 3.9306622 0
2.347472 3.9366207 3.9237204 0
7.2915354 3.9390614 3.9253821 0
4.8565593 3.952265 3.9397006 0
2.2711711 3.9706967 3.921885 0
7.285274 3.9778504 3.923557 0
2.2700658 4.004693 3.9208524 0
4.7761993 4.004137 3.9360397 0
7.2946658 4.0253983 3.9262946 0
2.1926277 4.0564961 3.9380679 0
2.2433102 4.0538211 3.9226637 0
4.6873364 4.0493555 3.9331026 0
4.7795091 4.0433092 3.9375198 0
7.1618423 4.0426512 3.9312193 0
2.1378469 4.0757217 3.9351552 0
2.1685681 4.0697508 3.937156 0
2.1816616 4.0730968 3.9273748 0
2.2121696 4.0656805 3.9278429 0
2.4754009 4.0656519 3.9356205 0
2.4911125 4.0748301 3.9286516 0
7.2967486 4.1550369 3.9269018 0
4.6619077 -8.3687439 3.9580643 0
7.2256708 -8.3555536 3.9502134 0
2.1248145 -8.2789841 3.943043 0
2.2243602 -8.2616568 3.9500132 0
2.3333895 -8.2641592 3.9562879 0
2.4420741 -8.2619419 3.9587693 0
4.6492243 -8.26476 3.952193 0
2.1584435 -8.2564507 3.9557259 0
2.2122369 -8.2517767 3.9571893 0
2.3963835 -8.2513657 3.9412866 0
4.7450094 -8.2481718 3.9593484 0
4.963943 -8.2410069 3.9575584 0
7.2530479 -8.2412577 3.9583602 0
2.2529857 -8.2193708 3.9565792 0
9.717617 -8.1822062 3.9408307 0
2.2562327 -8.1240187 3.9596872 0
2.272476 -8.1377211 3.9502609 0
2.3279774 -8.1386433 3.9512866 0
9.7439575 -8.1315737 3.9466338 0
7.3436713 -8.1143427 3.9405792 0
2.2727597 3.9260666 3.9505291 0
2.347219 3.9243433 3.9514184 0
4.7856297 3.9398799 3.9402571 0
4.806488 3.9211693 3.9495854 0
4.8661079 3.9240327 3.9439075 0
2.2671304 3.9516451 3.9452026 0
2.3465281 3.9584138 3.9507849 0
2.3365529 3.9770455 3.9416418 0
2.268836 3.9903412 3.9468167 0
2.3372598 3.9931822 3.9598644 0
4.7976928 3.9858634 3.945652 0
2.3374534 4.0144424 3.9424672 0
2.2690213 4.0267935 3.9469919 0
7.2259254 4.0363407 3.9502892 0
2.1474838 4.056921 3.9447801 0
2.264035 4.0543995 3.9422736 0
2.4569819 4.0555439 3.9444451 0
4.7299986 4.0495911 3.9525173 0
2.1845057 4.0625319 3.9528625 0
2.2150078 4.0608807 3.9598913 0
2.2319188 4.0649223 3.9468429 0
4.6630578 4.0768266 3.9585969 0
2.1757061 4.1584172 3.9441907 0
4.7307711 4.160892 3.9528689 0
4.6388016 -8.3439474 3.9716334 0
9.6423635 -8.3481646 3.9786806 0
4.6397047 -8.2643623 3.9720564 0
2.1317074 -8.2456036 3.9765618 0
2.1451287 -8.2459793 3.9635313 0
2.2027202 -8.2590971 3.970813 0
2.4260061 -8.2466307 3.9677558 0
4.680099 -8.2390366 3.9664853 0
9.58043 -8.2212915 3.9646869 0
4.7730742 -8.2172356 3.97212 0
2.3302913 -8.1881428 3.9771192 0
7.2612066 -8.1785078 3.960788 0
4.844769 -8.1580582 3.9667058 0
4.7695317 -8.1325598 3.9705079 0
7.2857528 -8.1345701 3.9680924 0
9.830904 -8.1311913 3.9657884 0
9.8201885 -8.0499802 3.9634278 0
4.7757401 3.9075694 3.9733334 0
7.2881432 3.9016693 3.9688039 0
2.2617235 3.928504 3.9649429 0
4.8621583 3.9305232 3.9744828 0
7.2748322 3.9365337 3.9648428 0
2.3511648 3.9456961 3.9727139 0
4.7750254 3.9427369 3.9730079 0
2.2657726 3.9710131 3.9688189 0
2.3414054 3.9645987 3.9636953 0
4.7741885 3.9780281 3.9726272 0
7.2822227 3.9827564 3.967042 0
2.2660987 4.0074606 3.969131 0
4.7803135 4.0193992 3.9754145 0
7.2840214 4.0261679 3.9675775 0
2.2681177 4.0473418 3.9710636 0
2.4636509 4.0527949 3.977843 0
2.4815052 4.0595722 3.9658489 0
4.6742616 4.0500755 3.963783 0
4.7797165 4.0554037 3.975143 0
7.1475806 4.0422325 3.9759178 0
2.1301856 4.0693612 3.9750078 0
2.1460195 4.0741458 3.9644299 0
2.1701024 4.0625224 3.9673703 0
2.2065692 4.0664921 3.9746065 0
2.2458498 4.0629368 3.9707847 0
2.2610958 4.0714202 3.9643421 0
2.4489198 4.0647335 3.9648209 0
4.7061014 4.1515098 3.9785223 0
7.2732263 4.148488 3.964365 0
2.1191747 -8.3587198 3.9892564 0
7.208725 -8.3517265 3.9945316 0
2.1242886 -8.2664566 3.9945393 0
2.1909142 -8.2693338 3.9881556 0
2.2512031 -8.2689934 3.9855475 0
2.1772327 -8.2582159 3.9959106 0
2.3970628 -8.2421513 3.9971039 0
2.4161067 -8.2585735 3.9858129 0
2.4670138 -8.2406607 3.9808159 0
4.6762772 -8.2488012 3.9891775 0
4.7274346 -8.2420721 3.9883976 0
4.9566016 -8.2467709 3.9837773 0
2.4535754 -8.2347651 3.9923902 0
7.1745629 -8.2394762 3.9841318 0
9.6836681 -8.2363815 3.9880135 0
9.7301245 -8.2025738 3.9985101 0
2.254674 -8.1913776 3.9985704 0
2.2557206 -8.1602736 3.9803255 0
4.8339152 -8.1637745 3.9998074 0
7.3464427 -8.1308212 3.9861526 0
2.3363171 -8.1044245 3.982749 0
2.2759953 3.9364245 3.9999225 0
2.2833118 3.9306409 3.9856074 0
2.3494496 3.927659 3.9950182 0
2.3675711 3.9379361 3.987875 0
2.26718 3.9564533 3.9914017 0
2.3416188 3.949651 3.9877021 0
2.2582688 3.9764273 3.9827886 0
2.3462849 3.9930558 3.9920616 0
2.3407798 4.0195246 3.9869182 0
2.2674923 4.0287342 3.9917035 0
7.2184858 4.0398126 3.9975033 0
2.1444957 4.059597 3.9896193 0
2.1720085 4.0492263 3.9906418 0
2.1879473 4.0589261 3.9851925 0
2.2020123 4.048203 3.9992399 0
2.2623503 4.0559869 3.9867334 0
2.4531157 4.0546641 3.9919796 0
4.6621857 4.0477052 3.9825807 0
4.7519927 4.0438776 3.9997661 0
2.2302518 4.0625105 3.9863224 0
4.7314539 4.0628905 3.9902585 0
2.1695168 4.0814533 3.9881287 0
4.6932111 4.1484332 3.9971051 0
4.6356406 -8.3594246 4.0006185 0
2.1687243 -8.2773571 4.0143576 0
2.2177186 -8.2604198 4.0149264 0
2.2350659 -8.2701626 4.0026903 0
2.3949938 -8.2659502 4.0132165 0
2.4489 -8.2647009 4.0154805 0
4.6676912 -8.2545528 4.0158334 0
4.7223549 -8.249711 4.0107489 0
4.9408588 -8.2408638 4.0096793 0
7.2391267 -8.2409983 4.0037866 0
2.3260751 -8.2222176 4.000977 0
7.1553912 -8.2302914 4.0180717 0
7.2864203 -8.2224312 4.0181842 0
9.5891962 -8.2386341 4.0192952 0
4.7558951 -8.2120218 4.0015726 0
4.7700415 -8.157629 4.008121 0
7.2769985 -8.1401653 4.015316 0
2.2650967 -8.1230974 4.0087337 0
9.7401733 -8.1381721 4.0007806 0
9.8249712 -8.1360397 4.0199409 0
2.3260906 -8.1172152 4.0009918 0
4.8467546 -8.1077347 4.0056505 0
7.2882304 3.9090967 4.0187354 0
2.2649426 3.9340653 4.0085835 0
2.3377111 3.9314115 4.0119877 0
4.787693 3.9290051 4.0162921 0
4.8569064 3.9378507 4.0102701 0
4.7750421 3.9544821 4.0104361 0
7.2808208 3.9472268 4.0164795 0
2.2620156 3.9643269 4.0057292 0
2.3457527 3.9802907 4.0195966 0
4.7848721 3.9987929 4.0149865 0
7.2899518 3.9945254 4.0192595 0
2.2673883 4.0095634 4.0109687 0
2.3366649 4.0004706 4.0109978 0
4.7866445 4.0366979 4.0158067 0
7.2721739 4.0272231 4.0138474 0
2.159698 4.0514407 4.0051413 0
2.1951098 4.0554123 4.0139413 0
2.2711112 4.0524249 4.0145984 0
2.4387717 4.0533323 4.0063176 0
2.4751532 4.054749 4.0116711 0
